6
-0.0547 -0.0532 0.0675
-0.0525 -0.0536 0.0675
-0.0519 -0.0538 0.0675
-0.0512 -0.0539 0.0675
-0.0462 -0.0556 0.0675
-0.0453 -0.0563 0.0675
-0.0443 -0.0573 0.0675
-0.0434 -0.0581 0.0675
-0.0423 -0.0591 0.0675
-0.0413 -0.0598 0.0675
-0.0389 -0.0631 0.0675
-0.0373 -0.0657 0.0675
-0.0363 -0.0672 0.0675
-0.0347 -0.0697 0.0675
-0.0332 -0.0723 0.0675
-0.0318 -0.0745 0.0675
-0.0311 -0.0768 0.0675
-0.0311 -0.0765 0.0675
-0.0309 -0.0772 0.0675
-0.0758 -0.0665 0.0676
-0.0753 -0.0679 0.0676
-0.0747 -0.0792 0.0676
-0.0745 -0.0827 0.0676
-0.0745 -0.0701 0.0676
-0.0742 -0.0847 0.0676
-0.0742 -0.071 0.0676
-0.0739 -0.0737 0.0676
-0.0736 -0.0723 0.0676
-0.0733 -0.0632 0.0676
-0.0731 -0.0863 0.0676
-0.0723 -0.062 0.0676
-0.072 -0.0879 0.0676
-0.0714 -0.0889 0.0676
-0.0714 -0.0609 0.0676
-0.0709 -0.0895 0.0676
-0.0705 -0.0597 0.0676
-0.0702 -0.0905 0.0676
-0.0691 -0.0921 0.0676
-0.0663 -0.0556 0.0676
-0.0656 -0.0551 0.0676
-0.0629 -0.0532 0.0676
-0.0623 -0.0527 0.0676
-0.062 -0.0526 0.0676
-0.0618 -0.0526 0.0676
-0.0615 -0.0526 0.0676
-0.0613 -0.0526 0.0676
-0.061 -0.0526 0.0676
-0.0608 -0.0526 0.0676
-0.0606 -0.0526 0.0676
-0.0604 -0.0526 0.0676
-0.0601 -0.0525 0.0676
-0.0599 -0.0525 0.0676
-0.0596 -0.0525 0.0676
-0.0582 -0.0525 0.0676
-0.0576 -0.0527 0.0676
-0.056 -0.0529 0.0676
-0.0554 -0.053 0.0676
-0.0538 -0.0533 0.0676
-0.0532 -0.0535 0.0676
-0.051 -0.0539 0.0676
-0.0499 -0.0541 0.0676
-0.0488 -0.0543 0.0676
-0.0475 -0.0548 0.0676
-0.0464 -0.0554 0.0676
-0.0445 -0.0571 0.0676
-0.0435 -0.0578 0.0676
-0.0424 -0.0588 0.0676
-0.0415 -0.0596 0.0676
-0.0405 -0.0607 0.0676
-0.0394 -0.0621 0.0676
-0.0379 -0.0646 0.0676
-0.0338 -0.0712 0.0676
-0.0322 -0.0738 0.0676
-0.0311 -0.0757 0.0676
-0.0304 -0.0777 0.0676
-0.0756 -0.067 0.0677
-0.0752 -0.0656 0.0677
-0.0751 -0.0684 0.0677
-0.0748 -0.0767 0.0677
-0.0748 -0.0693 0.0677
-0.0747 -0.0802 0.0677
-0.0743 -0.0706 0.0677
-0.0742 -0.0744 0.0677
-0.0742 -0.0644 0.0677
-0.0741 -0.0741 0.0677
-0.074 -0.0715 0.0677
-0.0735 -0.0857 0.0677
-0.0724 -0.0873 0.0677
-0.0707 -0.09 0.0677
-0.0699 -0.0588 0.0677
-0.0696 -0.0916 0.0677
-0.069 -0.0576 0.0677
-0.0683 -0.0571 0.0677
-0.0649 -0.0546 0.0677
-0.0594 -0.0525 0.0677
-0.0591 -0.0525 0.0677
-0.0589 -0.0525 0.0677
-0.0573 -0.0527 0.0677
-0.0567 -0.0528 0.0677
-0.0551 -0.053 0.0677
-0.0545 -0.0532 0.0677
-0.0529 -0.0535 0.0677
-0.0523 -0.0536 0.0677
-0.0516 -0.0538 0.0677
-0.0455 -0.0561 0.0677
-0.0446 -0.0569 0.0677
-0.0426 -0.0586 0.0677
-0.0417 -0.0593 0.0677
-0.0406 -0.0604 0.0677
-0.0385 -0.0636 0.0677
-0.0369 -0.0661 0.0677
-0.0359 -0.0676 0.0677
-0.0354 -0.0687 0.0677
-0.0343 -0.0702 0.0677
-0.0328 -0.0727 0.0677
-0.0314 -0.075 0.0677
-0.0308 -0.0769 0.0677
-0.0306 -0.0773 0.0677
-0.0755 -0.0676 0.0678
-0.0749 -0.0689 0.0678
-0.0748 -0.0777 0.0678
-0.0746 -0.0837 0.0678
-0.0746 -0.0698 0.0678
-0.0744 -0.0748 0.0678
-0.0741 -0.0852 0.0678
-0.0738 -0.072 0.0678
-0.0736 -0.0636 0.0678
-0.0729 -0.0868 0.0678
-0.0727 -0.0624 0.0678
-0.0723 -0.0878 0.0678
-0.0719 -0.0884 0.0678
-0.0718 -0.0612 0.0678
-0.0712 -0.0894 0.0678
-0.0709 -0.0601 0.0678
-0.0701 -0.091 0.0678
-0.0693 -0.0579 0.0678
-0.069 -0.0926 0.0678
-0.0676 -0.0566 0.0678
-0.0642 -0.0541 0.0678
-0.0586 -0.0524 0.0678
-0.058 -0.0525 0.0678
-0.0558 -0.0529 0.0678
-0.0542 -0.0532 0.0678
-0.0536 -0.0533 0.0678
-0.0503 -0.0539 0.0678
-0.0492 -0.0542 0.0678
-0.048 -0.0545 0.0678
-0.0466 -0.0552 0.0678
-0.0456 -0.0559 0.0678
-0.0437 -0.0576 0.0678
-0.0428 -0.0584 0.0678
-0.0408 -0.0602 0.0678
-0.04 -0.0611 0.0678
-0.039 -0.0625 0.0678
-0.0375 -0.0651 0.0678
-0.0334 -0.0717 0.0678
-0.0318 -0.0742 0.0678
-0.0758 -0.0667 0.0679
-0.0756 -0.066 0.0679
-0.0753 -0.0681 0.0679
-0.0749 -0.0787 0.0679
-0.0747 -0.0812 0.0679
-0.0746 -0.0847 0.0679
-0.0746 -0.0648 0.0679
-0.0745 -0.0751 0.0679
-0.0745 -0.0703 0.0679
-0.0741 -0.0711 0.0679
-0.0734 -0.0862 0.0679
-0.073 -0.0627 0.0679
-0.0721 -0.0616 0.0679
-0.0717 -0.0889 0.0679
-0.0712 -0.0604 0.0679
-0.0706 -0.0905 0.0679
-0.0702 -0.0592 0.0679
-0.0695 -0.0921 0.0679
-0.0669 -0.056 0.0679
-0.0635 -0.0535 0.0679
-0.0628 -0.053 0.0679
-0.0577 -0.0525 0.0679
-0.0571 -0.0527 0.0679
-0.0564 -0.0528 0.0679
-0.0555 -0.0529 0.0679
-0.0549 -0.053 0.0679
-0.0533 -0.0533 0.0679
-0.0527 -0.0535 0.0679
-0.052 -0.0536 0.0679
-0.0514 -0.0538 0.0679
-0.0458 -0.0557 0.0679
-0.0448 -0.0567 0.0679
-0.0439 -0.0574 0.0679
-0.0419 -0.0591 0.0679
-0.0409 -0.0599 0.0679
-0.0381 -0.064 0.0679
-0.0365 -0.0666 0.0679
-0.0349 -0.0691 0.0679
-0.0339 -0.0706 0.0679
-0.0324 -0.0732 0.0679
-0.031 -0.0754 0.0679
-0.0307 -0.0764 0.0679
-0.0307 -0.0762 0.0679
-0.0304 -0.0771 0.0679
-0.0303 -0.0775 0.0679
-0.0756 -0.0672 0.068
-0.0751 -0.0686 0.068
-0.0749 -0.0796 0.068
-0.0749 -0.0651 0.068
-0.0748 -0.0758 0.068
-0.0748 -0.0694 0.068
-0.0747 -0.0822 0.068
-0.0747 -0.0755 0.068
-0.0744 -0.0852 0.068
-0.074 -0.0639 0.068
-0.0739 -0.0857 0.068
-0.0739 -0.0717 0.068
-0.0733 -0.0867 0.068
-0.0728 -0.0873 0.068
-0.0722 -0.0883 0.068
-0.0711 -0.0899 0.068
-0.0699 -0.0915 0.068
-0.0697 -0.0583 0.068
-0.0689 -0.0574 0.068
-0.0662 -0.0555 0.068
-0.0655 -0.055 0.068
-0.0622 -0.0525 0.068
-0.0619 -0.0525 0.068
-0.0617 -0.0524 0.068
-0.0614 -0.0524 0.068
-0.0612 -0.0524 0.068
-0.0609 -0.0524 0.068
-0.0607 -0.0524 0.068
-0.0605 -0.0524 0.068
-0.0603 -0.0524 0.068
-0.06 -0.0524 0.068
-0.0598 -0.0523 0.068
-0.0595 -0.0523 0.068
-0.0584 -0.0524 0.068
-0.0562 -0.0528 0.068
-0.0546 -0.053 0.068
-0.054 -0.0532 0.068
-0.0507 -0.0538 0.068
-0.0496 -0.054 0.068
-0.0486 -0.0543 0.068
-0.0471 -0.0549 0.068
-0.046 -0.0554 0.068
-0.0449 -0.0564 0.068
-0.0441 -0.0572 0.068
-0.043 -0.0582 0.068
-0.042 -0.0589 0.068
-0.0396 -0.0615 0.068
-0.0386 -0.063 0.068
-0.037 -0.0655 0.068
-0.0355 -0.0681 0.068
-0.033 -0.0721 0.068
-0.0314 -0.0747 0.068
-0.0307 -0.0767 0.068
-0.0759 -0.0664 0.0681
-0.0754 -0.0677 0.0681
-0.075 -0.0762 0.0681
-0.0748 -0.0832 0.0681
-0.0746 -0.07 0.0681
-0.0743 -0.0708 0.0681
-0.0739 -0.0726 0.0681
-0.0738 -0.0722 0.0681
-0.0734 -0.0631 0.0681
-0.0727 -0.0878 0.0681
-0.0725 -0.0619 0.0681
-0.0716 -0.0894 0.0681
-0.0716 -0.0608 0.0681
-0.0706 -0.0595 0.0681
-0.0704 -0.091 0.0681
-0.0698 -0.092 0.0681
-0.0694 -0.0926 0.0681
-0.0682 -0.0569 0.0681
-0.0648 -0.0545 0.0681
-0.0593 -0.0523 0.0681
-0.059 -0.0523 0.0681
-0.0581 -0.0524 0.0681
-0.0575 -0.0525 0.0681
-0.0568 -0.0527 0.0681
-0.0553 -0.0529 0.0681
-0.0537 -0.0532 0.0681
-0.0531 -0.0533 0.0681
-0.0524 -0.0535 0.0681
-0.0518 -0.0536 0.0681
-0.0451 -0.0562 0.0681
-0.0442 -0.0569 0.0681
-0.0431 -0.0579 0.0681
-0.0422 -0.0587 0.0681
-0.0411 -0.0597 0.0681
-0.0402 -0.0605 0.0681
-0.0361 -0.067 0.0681
-0.0345 -0.0696 0.0681
-0.0335 -0.0711 0.0681
-0.0319 -0.0736 0.0681
-0.0306 -0.0759 0.0681
-0.0301 -0.0772 0.0681
-0.0758 -0.0669 0.0682
-0.0753 -0.0655 0.0682
-0.0752 -0.0683 0.0682
-0.075 -0.0772 0.0682
-0.0749 -0.0806 0.0682
-0.0749 -0.0691 0.0682
-0.0748 -0.0842 0.0682
-0.0743 -0.0856 0.0682
-0.0743 -0.0643 0.0682
-0.0741 -0.0729 0.0682
-0.0741 -0.0714 0.0682
-0.0738 -0.0862 0.0682
-0.0731 -0.0872 0.0682
-0.0721 -0.0888 0.0682
-0.071 -0.0904 0.0682
-0.07 -0.0587 0.0682
-0.0675 -0.0564 0.0682
-0.0641 -0.0539 0.0682
-0.0588 -0.0523 0.0682
-0.0559 -0.0528 0.0682
-0.055 -0.0529 0.0682
-0.0544 -0.053 0.0682
-0.0511 -0.0537 0.0682
-0.05 -0.0539 0.0682
-0.0489 -0.0541 0.0682
-0.0476 -0.0546 0.0682
-0.0462 -0.0552 0.0682
-0.0452 -0.056 0.0682
-0.0433 -0.0577 0.0682
-0.0423 -0.0584 0.0682
-0.0413 -0.0594 0.0682
-0.0404 -0.0603 0.0682
-0.0392 -0.0619 0.0682
-0.0382 -0.0634 0.0682
-0.0377 -0.0645 0.0682
-0.0366 -0.066 0.0682
-0.0351 -0.0685 0.0682
-0.031 -0.0751 0.0682
-0.0303 -0.0768 0.0682
-0.0756 -0.0674 0.0683
-0.0751 -0.0782 0.0683
-0.0749 -0.0816 0.0683
-0.0748 -0.0852 0.0683
-0.0748 -0.0697 0.0683
-0.0744 -0.0705 0.0683
-0.0742 -0.0733 0.0683
-0.0739 -0.0719 0.0683
-0.0737 -0.0634 0.0683
-0.0736 -0.0867 0.0683
-0.0728 -0.0623 0.0683
-0.0726 -0.0883 0.0683
-0.0719 -0.0611 0.0683
-0.0715 -0.0899 0.0683
-0.071 -0.0599 0.0683
-0.0708 -0.0909 0.0683
-0.0703 -0.0915 0.0683
-0.0697 -0.0925 0.0683
-0.0668 -0.0559 0.0683
-0.0661 -0.0553 0.0683
-0.0634 -0.0534 0.0683
-0.0627 -0.0529 0.0683
-0.0579 -0.0524 0.0683
-0.0572 -0.0525 0.0683
-0.0566 -0.0527 0.0683
-0.0557 -0.0528 0.0683
-0.0535 -0.0532 0.0683
-0.0528 -0.0533 0.0683
-0.0522 -0.0535 0.0683
-0.0444 -0.0567 0.0683
-0.0435 -0.0575 0.0683
-0.0415 -0.0592 0.0683
-0.0405 -0.06 0.0683
-0.0398 -0.0609 0.0683
-0.0357 -0.0675 0.0683
-0.0341 -0.07 0.0683
-0.0331 -0.0715 0.0683
-0.0326 -0.0726 0.0683
-0.0315 -0.0741 0.0683
-0.0759 -0.0666 0.0684
-0.0757 -0.0659 0.0684
-0.0754 -0.068 0.0684
-0.0751 -0.0791 0.0684
-0.0751 -0.0688 0.0684
-0.075 -0.0826 0.0684
-0.0747 -0.0646 0.0684
-0.0746 -0.0702 0.0684
-0.0745 -0.074 0.0684
-0.0744 -0.0736 0.0684
-0.0742 -0.071 0.0684
-0.0741 -0.0861 0.0684
-0.073 -0.0877 0.0684
-0.0719 -0.0893 0.0684
-0.0713 -0.0603 0.0684
-0.0704 -0.0591 0.0684
-0.0702 -0.092 0.0684
-0.0695 -0.0578 0.0684
-0.0688 -0.0573 0.0684
-0.0654 -0.0548 0.0684
-0.0621 -0.0524 0.0684
-0.0618 -0.0523 0.0684
-0.0616 -0.0523 0.0684
-0.0613 -0.0523 0.0684
-0.0611 -0.0523 0.0684
-0.0608 -0.0523 0.0684
-0.0606 -0.0523 0.0684
-0.0604 -0.0523 0.0684
-0.0602 -0.0523 0.0684
-0.0599 -0.0522 0.0684
-0.0597 -0.0522 0.0684
-0.0594 -0.0522 0.0684
-0.0585 -0.0523 0.0684
-0.0563 -0.0527 0.0684
-0.0548 -0.0529 0.0684
-0.0541 -0.053 0.0684
-0.0504 -0.0537 0.0684
-0.0493 -0.054 0.0684
-0.0481 -0.0543 0.0684
-0.0467 -0.055 0.0684
-0.0454 -0.0558 0.0684
-0.0445 -0.0565 0.0684
-0.0425 -0.0582 0.0684
-0.0416 -0.059 0.0684
-0.0388 -0.0624 0.0684
-0.0372 -0.0649 0.0684
-0.0362 -0.0664 0.0684
-0.0347 -0.069 0.0684
-0.0306 -0.0756 0.0684
-0.0302 -0.0766 0.0684
-0.0302 -0.0763 0.0684
-0.03 -0.077 0.0684
-0.0757 -0.0671 0.0685
-0.0752 -0.0766 0.0685
-0.0752 -0.0685 0.0685
-0.0751 -0.0801 0.0685
-0.075 -0.0836 0.0685
-0.0749 -0.0693 0.0685
-0.0747 -0.0743 0.0685
-0.0746 -0.0856 0.0685
-0.0741 -0.0715 0.0685
-0.0741 -0.0638 0.0685
-0.0735 -0.0872 0.0685
-0.0732 -0.0626 0.0685
-0.0724 -0.0888 0.0685
-0.0723 -0.0615 0.0685
-0.0718 -0.0898 0.0685
-0.0714 -0.0904 0.0685
-0.0707 -0.0914 0.0685
-0.0698 -0.0582 0.0685
-0.0681 -0.0568 0.0685
-0.0647 -0.0543 0.0685
-0.0592 -0.0522 0.0685
-0.0583 -0.0523 0.0685
-0.0576 -0.0524 0.0685
-0.057 -0.0525 0.0685
-0.0554 -0.0528 0.0685
-0.0539 -0.053 0.0685
-0.0532 -0.0532 0.0685
-0.0526 -0.0533 0.0685
-0.0515 -0.0536 0.0685
-0.0456 -0.0555 0.0685
-0.0447 -0.0563 0.0685
-0.0437 -0.0573 0.0685
-0.0427 -0.058 0.0685
-0.0407 -0.0598 0.0685
-0.0394 -0.0613 0.0685
-0.0378 -0.0639 0.0685
-0.0353 -0.0679 0.0685
-0.0337 -0.0705 0.0685
-0.0321 -0.073 0.0685
-0.0311 -0.0745 0.0685
-0.0761 -0.0663 0.0686
-0.0755 -0.0676 0.0686
-0.0753 -0.0776 0.0686
-0.0751 -0.0811 0.0686
-0.0751 -0.065 0.0686
-0.075 -0.0846 0.0686
-0.0748 -0.0747 0.0686
-0.0747 -0.0698 0.0686
-0.0744 -0.0707 0.0686
-0.074 -0.0866 0.0686
-0.0735 -0.063 0.0686
-0.0729 -0.0882 0.0686
-0.0726 -0.0618 0.0686
-0.0717 -0.0606 0.0686
-0.0712 -0.0909 0.0686
-0.0707 -0.0594 0.0686
-0.0701 -0.0925 0.0686
-0.0674 -0.0563 0.0686
-0.064 -0.0538 0.0686
-0.0633 -0.0532 0.0686
-0.0589 -0.0522 0.0686
-0.0567 -0.0525 0.0686
-0.0561 -0.0527 0.0686
-0.0552 -0.0528 0.0686
-0.0545 -0.0529 0.0686
-0.0508 -0.0536 0.0686
-0.0497 -0.0538 0.0686
-0.0487 -0.0541 0.0686
-0.0472 -0.0547 0.0686
-0.0458 -0.0553 0.0686
-0.0448 -0.056 0.0686
-0.0438 -0.057 0.0686
-0.0429 -0.0578 0.0686
-0.0418 -0.0588 0.0686
-0.0409 -0.0595 0.0686
-0.0384 -0.0628 0.0686
-0.0368 -0.0654 0.0686
-0.0358 -0.0669 0.0686
-0.0342 -0.0694 0.0686
-0.0327 -0.072 0.0686
-0.0302 -0.076 0.0686
-0.0299 -0.0767 0.0686
-0.0759 -0.0668 0.0687
-0.0754 -0.0681 0.0687
-0.0754 -0.0654 0.0687
-0.0753 -0.0786 0.0687
-0.0751 -0.0754 0.0687
-0.0751 -0.069 0.0687
-0.075 -0.0856 0.0687
-0.075 -0.075 0.0687
-0.0745 -0.0861 0.0687
-0.0744 -0.0641 0.0687
-0.0742 -0.0712 0.0687
-0.0738 -0.0871 0.0687
-0.0734 -0.0877 0.0687
-0.0728 -0.0887 0.0687
-0.0723 -0.0893 0.0687
-0.0717 -0.0903 0.0687
-0.0705 -0.0919 0.0687
-0.0702 -0.0585 0.0687
-0.0694 -0.0577 0.0687
-0.0667 -0.0557 0.0687
-0.066 -0.0552 0.0687
-0.0626 -0.0527 0.0687
-0.058 -0.0523 0.0687
-0.0574 -0.0524 0.0687
-0.0558 -0.0527 0.0687
-0.0536 -0.053 0.0687
-0.053 -0.0532 0.0687
-0.0519 -0.0534 0.0687
-0.044 -0.0568 0.0687
-0.043 -0.0575 0.0687
-0.0419 -0.0585 0.0687
-0.0411 -0.0593 0.0687
-0.04 -0.0604 0.0687
-0.039 -0.0618 0.0687
-0.0374 -0.0643 0.0687
-0.0333 -0.0709 0.0687
-0.0317 -0.0735 0.0687
-0.0307 -0.075 0.0687
-0.0757 -0.0673 0.0688
-0.0753 -0.0796 0.0688
-0.0753 -0.0757 0.0688
-0.0752 -0.0821 0.0688
-0.0749 -0.0695 0.0688
-0.0745 -0.0704 0.0688
-0.0743 -0.0866 0.0688
-0.0742 -0.0721 0.0688
-0.0741 -0.0718 0.0688
-0.0739 -0.0633 0.0688
-0.073 -0.0622 0.0688
-0.0722 -0.0898 0.0688
-0.072 -0.061 0.0688
-0.0711 -0.0914 0.0688
-0.0711 -0.0598 0.0688
-0.0687 -0.0571 0.0688
-0.0653 -0.0547 0.0688
-0.062 -0.0522 0.0688
-0.0617 -0.0522 0.0688
-0.0615 -0.0521 0.0688
-0.0612 -0.0521 0.0688
-0.061 -0.0521 0.0688
-0.0607 -0.0521 0.0688
-0.0605 -0.0521 0.0688
-0.0603 -0.0521 0.0688
-0.0601 -0.0521 0.0688
-0.0598 -0.0521 0.0688
-0.0596 -0.052 0.0688
-0.0593 -0.052 0.0688
-0.0587 -0.0522 0.0688
-0.0571 -0.0524 0.0688
-0.0564 -0.0525 0.0688
-0.0549 -0.0528 0.0688
-0.0543 -0.0529 0.0688
-0.0512 -0.0535 0.0688
-0.0501 -0.0537 0.0688
-0.049 -0.0539 0.0688
-0.0477 -0.0544 0.0688
-0.0463 -0.055 0.0688
-0.045 -0.0558 0.0688
-0.0441 -0.0566 0.0688
-0.0421 -0.0583 0.0688
-0.0412 -0.059 0.0688
-0.0401 -0.0601 0.0688
-0.038 -0.0633 0.0688
-0.0364 -0.0658 0.0688
-0.0354 -0.0673 0.0688
-0.0349 -0.0684 0.0688
-0.0338 -0.0699 0.0688
-0.0323 -0.0724 0.0688
-0.076 -0.0664 0.0689
-0.0758 -0.0657 0.0689
-0.0755 -0.0678 0.0689
-0.0754 -0.0761 0.0689
-0.0753 -0.0805 0.0689
-0.0752 -0.0831 0.0689
-0.0752 -0.0687 0.0689
-0.0749 -0.0861 0.0689
-0.0748 -0.0645 0.0689
-0.0744 -0.0725 0.0689
-0.0744 -0.0709 0.0689
-0.0737 -0.0876 0.0689
-0.0733 -0.0882 0.0689
-0.0726 -0.0892 0.0689
-0.0716 -0.0908 0.0689
-0.0714 -0.0601 0.0689
-0.0705 -0.0589 0.0689
-0.0704 -0.0924 0.0689
-0.068 -0.0566 0.0689
-0.0646 -0.0542 0.0689
-0.0584 -0.0522 0.0689
-0.0578 -0.0523 0.0689
-0.0562 -0.0525 0.0689
-0.0556 -0.0527 0.0689
-0.054 -0.0529 0.0689
-0.0534 -0.053 0.0689
-0.0523 -0.0533 0.0689
-0.0452 -0.0556 0.0689
-0.0432 -0.0573 0.0689
-0.0423 -0.0581 0.0689
-0.0403 -0.0599 0.0689
-0.0396 -0.0608 0.0689
-0.0386 -0.0622 0.0689
-0.037 -0.0648 0.0689
-0.0329 -0.0714 0.0689
-0.0313 -0.0739 0.0689
-0.0303 -0.0754 0.0689
-0.0298 -0.0765 0.0689
-0.0758 -0.067 0.069
-0.0755 -0.0781 0.069
-0.0755 -0.0771 0.069
-0.0752 -0.0841 0.069
-0.075 -0.0692 0.069
-0.0747 -0.0701 0.069
-0.0745 -0.0728 0.069
-0.0742 -0.0871 0.069
-0.0742 -0.0714 0.069
-0.0742 -0.0637 0.069
-0.0733 -0.0625 0.069
-0.0731 -0.0887 0.069
-0.0724 -0.0613 0.069
-0.0721 -0.0903 0.069
-0.0709 -0.0919 0.069
-0.0673 -0.0561 0.069
-0.0666 -0.0556 0.069
-0.0639 -0.0536 0.069
-0.0632 -0.0531 0.069
-0.0591 -0.052 0.069
-0.0575 -0.0522 0.069
-0.0568 -0.0524 0.069
-0.0553 -0.0527 0.069
-0.0547 -0.0528 0.069
-0.0505 -0.0535 0.069
-0.0494 -0.0538 0.069
-0.0482 -0.0541 0.069
-0.0468 -0.0548 0.069
-0.0454 -0.0554 0.069
-0.0443 -0.0564 0.069
-0.0434 -0.0571 0.069
-0.0414 -0.0588 0.069
-0.0405 -0.0596 0.069
-0.0376 -0.0637 0.069
-0.036 -0.0663 0.069
-0.0344 -0.0688 0.069
-0.0334 -0.0703 0.069
-0.0319 -0.0729 0.069
-0.0762 -0.0661 0.0691
-0.0757 -0.0675 0.0691
-0.0754 -0.0815 0.0691
-0.0754 -0.0684 0.0691
-0.0752 -0.0851 0.0691
-0.0752 -0.0649 0.0691
-0.0748 -0.0735 0.0691
-0.0748 -0.0697 0.0691
-0.0747 -0.0865 0.0691
-0.0747 -0.0732 0.0691
-0.0745 -0.0706 0.0691
-0.0736 -0.0881 0.0691
-0.0727 -0.0617 0.0691
-0.0725 -0.0897 0.0691
-0.0718 -0.0605 0.0691
-0.0714 -0.0913 0.0691
-0.0709 -0.0593 0.0691
-0.07 -0.0581 0.0691
-0.0693 -0.0575 0.0691
-0.0659 -0.055 0.0691
-0.0625 -0.0526 0.0691
-0.0588 -0.052 0.0691
-0.0582 -0.0522 0.0691
-0.0565 -0.0524 0.0691
-0.0559 -0.0525 0.0691
-0.0538 -0.0529 0.0691
-0.0527 -0.0531 0.0691
-0.0516 -0.0534 0.0691
-0.0444 -0.0561 0.0691
-0.0436 -0.0569 0.0691
-0.0425 -0.0579 0.0691
-0.0415 -0.0586 0.0691
-0.0392 -0.0612 0.0691
-0.0382 -0.0627 0.0691
-0.0365 -0.0652 0.0691
-0.035 -0.0678 0.0691
-0.0325 -0.0718 0.0691
-0.0309 -0.0744 0.0691
-0.076 -0.0667 0.0692
-0.0755 -0.0791 0.0692
-0.0754 -0.0825 0.0692
-0.0753 -0.0861 0.0692
-0.0752 -0.0689 0.0692
-0.075 -0.0739 0.0692
-0.0746 -0.087 0.0692
-0.0746 -0.064 0.0692
-0.0744 -0.0711 0.0692
-0.0741 -0.0876 0.0692
-0.0737 -0.0629 0.0692
-0.073 -0.0892 0.0692
-0.0719 -0.0908 0.0692
-0.0713 -0.0918 0.0692
-0.0708 -0.0924 0.0692
-0.0703 -0.0584 0.0692
-0.0686 -0.057 0.0692
-0.0652 -0.0545 0.0692
-0.0619 -0.0521 0.0692
-0.0616 -0.052 0.0692
-0.0614 -0.052 0.0692
-0.0611 -0.052 0.0692
-0.0609 -0.052 0.0692
-0.0606 -0.052 0.0692
-0.0604 -0.052 0.0692
-0.0602 -0.052 0.0692
-0.06 -0.052 0.0692
-0.0597 -0.0519 0.0692
-0.0595 -0.0519 0.0692
-0.0579 -0.0521 0.0692
-0.0572 -0.0522 0.0692
-0.0557 -0.0525 0.0692
-0.0551 -0.0527 0.0692
-0.0544 -0.0528 0.0692
-0.0509 -0.0534 0.0692
-0.0498 -0.0536 0.0692
-0.0488 -0.0539 0.0692
-0.0473 -0.0545 0.0692
-0.0459 -0.0551 0.0692
-0.0446 -0.0559 0.0692
-0.0437 -0.0566 0.0692
-0.0426 -0.0576 0.0692
-0.0417 -0.0584 0.0692
-0.0407 -0.0594 0.0692
-0.0397 -0.0602 0.0692
-0.0356 -0.0667 0.0692
-0.034 -0.0693 0.0692
-0.033 -0.0708 0.0692
-0.0314 -0.0733 0.0692
-0.0299 -0.0759 0.0692
-0.0758 -0.0672 0.0693
-0.0757 -0.0765 0.0693
-0.0756 -0.0653 0.0693
-0.0755 -0.08 0.0693
-0.0755 -0.068 0.0693
-0.0754 -0.0835 0.0693
-0.0751 -0.0865 0.0693
-0.0751 -0.0742 0.0693
-0.075 -0.0694 0.0693
-0.0747 -0.0702 0.0693
-0.074 -0.0632 0.0693
-0.0735 -0.0886 0.0693
-0.0731 -0.062 0.0693
-0.0724 -0.0902 0.0693
-0.0721 -0.0608 0.0693
-0.0712 -0.0597 0.0693
-0.0679 -0.0565 0.0693
-0.0645 -0.054 0.0693
-0.0638 -0.0535 0.0693
-0.0592 -0.0519 0.0693
-0.0586 -0.052 0.0693
-0.0563 -0.0524 0.0693
-0.0542 -0.0528 0.0693
-0.0531 -0.053 0.0693
-0.052 -0.0532 0.0693
-0.0448 -0.0557 0.0693
-0.0428 -0.0574 0.0693
-0.0418 -0.0581 0.0693
-0.0408 -0.0591 0.0693
-0.0399 -0.06 0.0693
-0.0388 -0.0616 0.0693
-0.0377 -0.0631 0.0693
-0.0372 -0.0642 0.0693
-0.0361 -0.0657 0.0693
-0.0346 -0.0682 0.0693
-0.0305 -0.0748 0.0693
-0.0761 -0.0663 0.0694
-0.0759 -0.0656 0.0694
-0.0757 -0.0775 0.0694
-0.0756 -0.081 0.0694
-0.0754 -0.0845 0.0694
-0.0754 -0.0749 0.0694
-0.0753 -0.0746 0.0694
-0.0753 -0.0685 0.0694
-0.0749 -0.0644 0.0694
-0.0745 -0.0708 0.0694
-0.0744 -0.0875 0.0694
-0.074 -0.0881 0.0694
-0.0733 -0.0891 0.0694
-0.0729 -0.0897 0.0694
-0.0723 -0.0907 0.0694
-0.0718 -0.0913 0.0694
-0.0716 -0.06 0.0694
-0.0711 -0.0923 0.0694
-0.0707 -0.0588 0.0694
-0.0699 -0.0579 0.0694
-0.0672 -0.056 0.0694
-0.0665 -0.0554 0.0694
-0.0631 -0.0529 0.0694
-0.0583 -0.052 0.0694
-0.0576 -0.0521 0.0694
-0.0569 -0.0522 0.0694
-0.056 -0.0524 0.0694
-0.0554 -0.0525 0.0694
-0.0548 -0.0527 0.0694
-0.0513 -0.0533 0.0694
-0.0502 -0.0535 0.0694
-0.0491 -0.0537 0.0694
-0.0478 -0.0542 0.0694
-0.0464 -0.0548 0.0694
-0.0439 -0.0564 0.0694
-0.043 -0.0572 0.0694
-0.041 -0.0589 0.0694
-0.0401 -0.0597 0.0694
-0.0393 -0.0606 0.0694
-0.0352 -0.0672 0.0694
-0.0336 -0.0697 0.0694
-0.0326 -0.0712 0.0694
-0.0321 -0.0723 0.0694
-0.031 -0.0738 0.0694
-0.076 -0.0668 0.0695
-0.0757 -0.0785 0.0695
-0.0757 -0.0677 0.0695
-0.0756 -0.082 0.0695
-0.0756 -0.0753 0.0695
-0.0755 -0.0855 0.0695
-0.0751 -0.0691 0.0695
-0.075 -0.087 0.0695
-0.0748 -0.0699 0.0695
-0.0745 -0.0717 0.0695
-0.0744 -0.0713 0.0695
-0.0744 -0.0636 0.0695
-0.0738 -0.0886 0.0695
-0.0734 -0.0624 0.0695
-0.0725 -0.0612 0.0695
-0.0716 -0.0918 0.0695
-0.0692 -0.0574 0.0695
-0.0658 -0.0549 0.0695
-0.0624 -0.0524 0.0695
-0.059 -0.0519 0.0695
-0.0567 -0.0522 0.0695
-0.0535 -0.0528 0.0695
-0.0524 -0.0531 0.0695
-0.045 -0.0555 0.0695
-0.044 -0.0562 0.0695
-0.042 -0.0579 0.0695
-0.0411 -0.0587 0.0695
-0.0384 -0.0621 0.0695
-0.0367 -0.0646 0.0695
-0.0357 -0.0661 0.0695
-0.0342 -0.0687 0.0695
-0.0301 -0.0753 0.0695
-0.0763 -0.066 0.0696
-0.0757 -0.0795 0.0696
-0.0757 -0.0756 0.0696
-0.0755 -0.0865 0.0696
-0.0755 -0.0682 0.0696
-0.0753 -0.0647 0.0696
-0.0747 -0.072 0.0696
-0.0747 -0.0705 0.0696
-0.0743 -0.088 0.0696
-0.0732 -0.0896 0.0696
-0.0728 -0.0902 0.0696
-0.0728 -0.0615 0.0696
-0.0721 -0.0912 0.0696
-0.0719 -0.0604 0.0696
-0.071 -0.0592 0.0696
-0.0685 -0.0568 0.0696
-0.0651 -0.0544 0.0696
-0.0618 -0.0519 0.0696
-0.0615 -0.0519 0.0696
-0.0613 -0.0518 0.0696
-0.061 -0.0518 0.0696
-0.0608 -0.0518 0.0696
-0.0605 -0.0518 0.0696
-0.0603 -0.0518 0.0696
-0.0601 -0.0518 0.0696
-0.0599 -0.0518 0.0696
-0.0596 -0.0518 0.0696
-0.0587 -0.0519 0.0696
-0.058 -0.052 0.0696
-0.0573 -0.0521 0.0696
-0.0558 -0.0524 0.0696
-0.0552 -0.0525 0.0696
-0.0546 -0.0527 0.0696
-0.0506 -0.0533 0.0696
-0.0495 -0.0536 0.0696
-0.0483 -0.0539 0.0696
-0.0469 -0.0546 0.0696
-0.0455 -0.0552 0.0696
-0.0442 -0.056 0.0696
-0.0432 -0.057 0.0696
-0.0422 -0.0577 0.0696
-0.0403 -0.0595 0.0696
-0.0389 -0.061 0.0696
-0.0373 -0.0636 0.0696
-0.0348 -0.0676 0.0696
-0.0332 -0.0702 0.0696
-0.0316 -0.0727 0.0696
-0.0306 -0.0742 0.0696
-0.03 -0.0758 0.0696
-0.0761 -0.0665 0.0697
-0.0759 -0.077 0.0697
-0.0759 -0.076 0.0697
-0.0758 -0.0805 0.0697
-0.0758 -0.0674 0.0697
-0.0756 -0.083 0.0697
-0.0753 -0.0688 0.0697
-0.075 -0.0696 0.0697
-0.0748 -0.0875 0.0697
-0.0748 -0.0724 0.0697
-0.0747 -0.0639 0.0697
-0.0745 -0.071 0.0697
-0.0738 -0.0627 0.0697
-0.0737 -0.0891 0.0697
-0.0726 -0.0907 0.0697
-0.0715 -0.0923 0.0697
-0.0678 -0.0563 0.0697
-0.0671 -0.0558 0.0697
-0.0644 -0.0539 0.0697
-0.0637 -0.0533 0.0697
-0.0594 -0.0518 0.0697
-0.0564 -0.0522 0.0697
-0.0539 -0.0527 0.0697
-0.0528 -0.0529 0.0697
-0.0517 -0.0532 0.0697
-0.0444 -0.0557 0.0697
-0.0433 -0.0567 0.0697
-0.0424 -0.0575 0.0697
-0.0413 -0.0585 0.0697
-0.0404 -0.0592 0.0697
-0.0379 -0.0625 0.0697
-0.0363 -0.0651 0.0697
-0.0353 -0.0666 0.0697
-0.0337 -0.0691 0.0697
-0.0322 -0.0717 0.0697
-0.0759 -0.078 0.0698
-0.0758 -0.0814 0.0698
-0.0757 -0.0651 0.0698
-0.0756 -0.084 0.0698
-0.0756 -0.0679 0.0698
-0.0753 -0.087 0.0698
-0.0751 -0.0731 0.0698
-0.0751 -0.0693 0.0698
-0.075 -0.0727 0.0698
-0.0748 -0.0701 0.0698
-0.0742 -0.0885 0.0698
-0.0732 -0.0619 0.0698
-0.0731 -0.0901 0.0698
-0.0723 -0.0607 0.0698
-0.072 -0.0917 0.0698
-0.0714 -0.0596 0.0698
-0.0705 -0.0583 0.0698
-0.0698 -0.0578 0.0698
-0.0664 -0.0553 0.0698
-0.063 -0.0528 0.0698
-0.0584 -0.0519 0.0698
-0.0577 -0.0519 0.0698
-0.0571 -0.0521 0.0698
-0.0562 -0.0522 0.0698
-0.0555 -0.0524 0.0698
-0.0549 -0.0525 0.0698
-0.051 -0.0532 0.0698
-0.0499 -0.0534 0.0698
-0.0489 -0.0537 0.0698
-0.0474 -0.0543 0.0698
-0.046 -0.0549 0.0698
-0.0435 -0.0565 0.0698
-0.0425 -0.0572 0.0698
-0.0414 -0.0582 0.0698
-0.0406 -0.059 0.0698
-0.0395 -0.0601 0.0698
-0.0385 -0.0615 0.0698
-0.0369 -0.064 0.0698
-0.0328 -0.0706 0.0698
-0.0312 -0.0732 0.0698
-0.0302 -0.0747 0.0698
-0.0763 -0.0662 0.0699
-0.076 -0.0671 0.0699
-0.0759 -0.079 0.0699
-0.0757 -0.086 0.0699
-0.0757 -0.085 0.0699
-0.0754 -0.0684 0.0699
-0.0753 -0.0734 0.0699
-0.0752 -0.0874 0.0699
-0.0751 -0.0643 0.0699
-0.0747 -0.088 0.0699
-0.0747 -0.0706 0.0699
-0.0742 -0.0631 0.0699
-0.074 -0.089 0.0699
-0.0736 -0.0896 0.0699
-0.0725 -0.0912 0.0699
-0.0717 -0.0599 0.0699
-0.0708 -0.0587 0.0699
-0.0691 -0.0572 0.0699
-0.0657 -0.0547 0.0699
-0.0623 -0.0523 0.0699
-0.0591 -0.0517 0.0699
-0.0568 -0.0521 0.0699
-0.0543 -0.0526 0.0699
-0.0532 -0.0528 0.0699
-0.0521 -0.053 0.0699
-0.0446 -0.0555 0.0699
-0.0436 -0.0563 0.0699
-0.0416 -0.058 0.0699
-0.0407 -0.0588 0.0699
-0.0397 -0.0598 0.0699
-0.0375 -0.063 0.0699
-0.0359 -0.0655 0.0699
-0.0349 -0.067 0.0699
-0.0344 -0.0681 0.0699
-0.0333 -0.0696 0.0699
-0.0318 -0.0721 0.0699
-0.0302 -0.0752 0.0699
-0.0761 -0.0655 0.07
-0.0758 -0.0824 0.07
-0.0758 -0.0676 0.07
-0.0754 -0.0738 0.07
-0.0753 -0.0689 0.07
-0.075 -0.0698 0.07
-0.0745 -0.0885 0.07
-0.0745 -0.0634 0.07
-0.0735 -0.0622 0.07
-0.073 -0.0906 0.07
-0.0726 -0.0611 0.07
-0.0719 -0.0922 0.07
-0.0684 -0.0567 0.07
-0.065 -0.0542 0.07
-0.0643 -0.0537 0.07
-0.0617 -0.0518 0.07
-0.0614 -0.0517 0.07
-0.0612 -0.0517 0.07
-0.0609 -0.0517 0.07
-0.0607 -0.0517 0.07
-0.0604 -0.0517 0.07
-0.0602 -0.0517 0.07
-0.06 -0.0517 0.07
-0.0598 -0.0517 0.07
-0.0588 -0.0517 0.07
-0.0581 -0.0518 0.07
-0.0575 -0.0519 0.07
-0.0559 -0.0522 0.07
-0.0553 -0.0524 0.07
-0.0514 -0.0531 0.07
-0.0503 -0.0533 0.07
-0.0492 -0.0535 0.07
-0.0479 -0.054 0.07
-0.0465 -0.0546 0.07
-0.0427 -0.057 0.07
-0.0418 -0.0578 0.07
-0.0399 -0.0596 0.07
-0.0391 -0.0605 0.07
-0.0381 -0.0619 0.07
-0.0365 -0.0645 0.07
-0.0324 -0.0711 0.07
-0.0308 -0.0736 0.07
-0.0764 -0.0659 0.0701
-0.0761 -0.0774 0.0701
-0.0761 -0.0764 0.0701
-0.0761 -0.0667 0.0701
-0.076 -0.08 0.0701
-0.0758 -0.0834 0.0701
-0.0757 -0.087 0.0701
-0.0757 -0.0745 0.0701
-0.0756 -0.0741 0.0701
-0.0756 -0.0681 0.0701
-0.0754 -0.0646 0.0701
-0.075 -0.0879 0.0701
-0.0748 -0.0703 0.0701
-0.0739 -0.0895 0.0701
-0.0735 -0.0901 0.0701
-0.073 -0.0614 0.0701
-0.0728 -0.0911 0.0701
-0.0724 -0.0917 0.0701
-0.0721 -0.0603 0.0701
-0.0712 -0.059 0.0701
-0.0704 -0.0582 0.0701
-0.0677 -0.0562 0.0701
-0.067 -0.0557 0.0701
-0.0636 -0.0532 0.0701
-0.0595 -0.0516 0.0701
-0.0572 -0.0519 0.0701
-0.0566 -0.0521 0.0701
-0.0536 -0.0526 0.0701
-0.0525 -0.0529 0.0701
-0.0451 -0.0553 0.0701
-0.0438 -0.0561 0.0701
-0.0429 -0.0568 0.0701
-0.0409 -0.0586 0.0701
-0.04 -0.0593 0.0701
-0.0371 -0.0634 0.0701
-0.0355 -0.066 0.0701
-0.0339 -0.0685 0.0701
-0.0329 -0.07 0.0701
-0.0314 -0.0726 0.0701
-0.0761 -0.0784 0.0702
-0.076 -0.0809 0.0702
-0.0759 -0.0844 0.0702
-0.0759 -0.0748 0.0702
-0.0759 -0.0672 0.0702
-0.0755 -0.0874 0.0702
-0.0754 -0.0686 0.0702
-0.0751 -0.0695 0.0702
-0.0749 -0.0638 0.0702
-0.0748 -0.0712 0.0702
-0.0747 -0.0709 0.0702
-0.0744 -0.089 0.0702
-0.0739 -0.0626 0.0702
-0.0733 -0.0906 0.0702
-0.0697 -0.0576 0.0702
-0.0663 -0.0551 0.0702
-0.0629 -0.0526 0.0702
-0.0585 -0.0517 0.0702
-0.0579 -0.0518 0.0702
-0.0563 -0.0521 0.0702
-0.0557 -0.0522 0.0702
-0.0547 -0.0525 0.0702
-0.0507 -0.0531 0.0702
-0.0496 -0.0534 0.0702
-0.0484 -0.0537 0.0702
-0.047 -0.0544 0.0702
-0.0456 -0.055 0.0702
-0.044 -0.0558 0.0702
-0.0431 -0.0566 0.0702
-0.042 -0.0576 0.0702
-0.041 -0.0583 0.0702
-0.0387 -0.0609 0.0702
-0.0377 -0.0624 0.0702
-0.0361 -0.0649 0.0702
-0.0345 -0.0675 0.0702
-0.032 -0.0715 0.0702
-0.0304 -0.0741 0.0702
-0.0763 -0.0664 0.0703
-0.076 -0.0819 0.0703
-0.076 -0.0752 0.0703
-0.0759 -0.0854 0.0703
-0.0758 -0.065 0.0703
-0.0757 -0.0678 0.0703
-0.075 -0.0716 0.0703
-0.075 -0.07 0.0703
-0.0749 -0.0884 0.0703
-0.0738 -0.09 0.0703
-0.0733 -0.0618 0.0703
-0.0727 -0.0916 0.0703
-0.0724 -0.0606 0.0703
-0.0723 -0.0922 0.0703
-0.0715 -0.0594 0.0703
-0.069 -0.0571 0.0703
-0.0656 -0.0546 0.0703
-0.0622 -0.0521 0.0703
-0.0616 -0.0516 0.0703
-0.0613 -0.0516 0.0703
-0.0611 -0.0515 0.0703
-0.0608 -0.0515 0.0703
-0.0606 -0.0515 0.0703
-0.0603 -0.0515 0.0703
-0.0601 -0.0515 0.0703
-0.0599 -0.0515 0.0703
-0.0592 -0.0516 0.0703
-0.0576 -0.0518 0.0703
-0.057 -0.0519 0.0703
-0.054 -0.0525 0.0703
-0.0529 -0.0527 0.0703
-0.0518 -0.053 0.0703
-0.0442 -0.0556 0.0703
-0.0432 -0.0563 0.0703
-0.0421 -0.0573 0.0703
-0.0412 -0.0581 0.0703
-0.0402 -0.0591 0.0703
-0.0393 -0.0599 0.0703
-0.0351 -0.0664 0.0703
-0.0335 -0.069 0.0703
-0.0325 -0.0705 0.0703
-0.0309 -0.073 0.0703
-0.0303 -0.0746 0.0703
-0.0763 -0.0759 0.0704
-0.0762 -0.0794 0.0704
-0.0762 -0.0755 0.0704
-0.0761 -0.0669 0.0704
-0.076 -0.0829 0.0704
-0.0759 -0.0864 0.0704
-0.0756 -0.0683 0.0704
-0.0754 -0.0879 0.0704
-0.0753 -0.0692 0.0704
-0.0752 -0.0641 0.0704
-0.0751 -0.0719 0.0704
-0.0748 -0.0705 0.0704
-0.0743 -0.0895 0.0704
-0.0743 -0.0629 0.0704
-0.0732 -0.0911 0.0704
-0.0683 -0.0565 0.0704
-0.0676 -0.056 0.0704
-0.0649 -0.0541 0.0704
-0.0642 -0.0536 0.0704
-0.0589 -0.0516 0.0704
-0.0583 -0.0517 0.0704
-0.0567 -0.0519 0.0704
-0.0561 -0.0521 0.0704
-0.055 -0.0523 0.0704
-0.0511 -0.053 0.0704
-0.05 -0.0532 0.0704
-0.049 -0.0535 0.0704
-0.0475 -0.0541 0.0704
-0.0461 -0.0547 0.0704
-0.0423 -0.0571 0.0704
-0.0414 -0.0579 0.0704
-0.0403 -0.0589 0.0704
-0.0395 -0.0597 0.0704
-0.0383 -0.0613 0.0704
-0.0372 -0.0628 0.0704
-0.0367 -0.0639 0.0704
-0.0357 -0.0654 0.0704
-0.0341 -0.0679 0.0704
-0.0303 -0.0751 0.0704
-0.0764 -0.0661 0.0705
-0.0763 -0.0769 0.0705
-0.0762 -0.0804 0.0705
-0.0762 -0.0654 0.0705
-0.0759 -0.0874 0.0705
-0.0759 -0.0675 0.0705
-0.0754 -0.0726 0.0705
-0.0754 -0.0688 0.0705
-0.0753 -0.0723 0.0705
-0.0751 -0.0697 0.0705
-0.0748 -0.0889 0.0705
-0.0737 -0.0905 0.0705
-0.0737 -0.0621 0.0705
-0.0728 -0.061 0.0705
-0.0726 -0.0921 0.0705
-0.0719 -0.0598 0.0705
-0.071 -0.0586 0.0705
-0.0703 -0.058 0.0705
-0.0669 -0.0555 0.0705
-0.0635 -0.053 0.0705
-0.0596 -0.0515 0.0705
-0.058 -0.0517 0.0705
-0.0574 -0.0518 0.0705
-0.0544 -0.0524 0.0705
-0.0533 -0.0526 0.0705
-0.0522 -0.0528 0.0705
-0.0447 -0.0553 0.0705
-0.0434 -0.0561 0.0705
-0.0425 -0.0569 0.0705
-0.0405 -0.0587 0.0705
-0.0396 -0.0594 0.0705
-0.0389 -0.0603 0.0705
-0.0347 -0.0669 0.0705
-0.0331 -0.0694 0.0705
-0.0321 -0.0709 0.0705
-0.0316 -0.072 0.0705
-0.0305 -0.0735 0.0705
-0.0763 -0.0779 0.0706
-0.0762 -0.0813 0.0706
-0.0762 -0.0666 0.0706
-0.0761 -0.0849 0.0706
-0.0761 -0.0839 0.0706
-0.0757 -0.068 0.0706
-0.0756 -0.073 0.0706
-0.0756 -0.0645 0.0706
-0.0753 -0.0884 0.0706
-0.075 -0.0702 0.0706
-0.0747 -0.0633 0.0706
-0.0746 -0.0894 0.0706
-0.0742 -0.09 0.0706
-0.0735 -0.091 0.0706
-0.0731 -0.0916 0.0706
-0.0731 -0.0613 0.0706
-0.0722 -0.0601 0.0706
-0.0713 -0.0589 0.0706
-0.0696 -0.0575 0.0706
-0.0662 -0.055 0.0706
-0.0628 -0.0525 0.0706
-0.0593 -0.0514 0.0706
-0.0587 -0.0516 0.0706
-0.0571 -0.0518 0.0706
-0.0565 -0.0519 0.0706
-0.0554 -0.0522 0.0706
-0.0515 -0.0529 0.0706
-0.0504 -0.0531 0.0706
-0.0493 -0.0533 0.0706
-0.048 -0.0538 0.0706
-0.0466 -0.0544 0.0706
-0.0436 -0.0559 0.0706
-0.0416 -0.0577 0.0706
-0.0406 -0.0584 0.0706
-0.0379 -0.0618 0.0706
-0.0363 -0.0643 0.0706
-0.0353 -0.0658 0.0706
-0.0337 -0.0684 0.0706
-0.0305 -0.074 0.0706
-0.0766 -0.0658 0.0707
-0.0764 -0.0789 0.0707
-0.0762 -0.0823 0.0707
-0.0761 -0.0859 0.0707
-0.076 -0.0671 0.0707
-0.0758 -0.0879 0.0707
-0.0757 -0.0733 0.0707
-0.0756 -0.0685 0.0707
-0.0753 -0.0693 0.0707
-0.075 -0.0636 0.0707
-0.074 -0.0905 0.0707
-0.074 -0.0625 0.0707
-0.0689 -0.0569 0.0707
-0.0655 -0.0544 0.0707
-0.0648 -0.0539 0.0707
-0.0621 -0.052 0.0707
-0.0615 -0.0515 0.0707
-0.0612 -0.0514 0.0707
-0.061 -0.0514 0.0707
-0.0607 -0.0514 0.0707
-0.0605 -0.0514 0.0707
-0.0602 -0.0514 0.0707
-0.06 -0.0514 0.0707
-0.0584 -0.0516 0.0707
-0.0578 -0.0517 0.0707
-0.0537 -0.0524 0.0707
-0.0526 -0.0527 0.0707
-0.0452 -0.0551 0.0707
-0.0438 -0.0557 0.0707
-0.0427 -0.0567 0.0707
-0.0417 -0.0574 0.0707
-0.0398 -0.0592 0.0707
-0.0384 -0.0608 0.0707
-0.0368 -0.0633 0.0707
-0.0343 -0.0673 0.0707
-0.0327 -0.0699 0.0707
-0.0311 -0.0724 0.0707
-0.0304 -0.0745 0.0707
-0.0765 -0.0763 0.0708
-0.0764 -0.0799 0.0708
-0.0764 -0.0663 0.0708
-0.0761 -0.0869 0.0708
-0.076 -0.074 0.0708
-0.0759 -0.0737 0.0708
-0.0759 -0.0676 0.0708
-0.0759 -0.0649 0.0708
-0.0756 -0.0883 0.0708
-0.0752 -0.0889 0.0708
-0.0751 -0.0699 0.0708
-0.0745 -0.0899 0.0708
-0.0735 -0.0617 0.0708
-0.0734 -0.0915 0.0708
-0.073 -0.0921 0.0708
-0.0726 -0.0605 0.0708
-0.0717 -0.0593 0.0708
-0.0709 -0.0584 0.0708
-0.0682 -0.0564 0.0708
-0.0675 -0.0559 0.0708
-0.0641 -0.0534 0.0708
-0.0597 -0.0513 0.0708
-0.0591 -0.0514 0.0708
-0.0569 -0.0518 0.0708
-0.0558 -0.052 0.0708
-0.0548 -0.0523 0.0708
-0.0508 -0.0529 0.0708
-0.0497 -0.0532 0.0708
-0.0485 -0.0535 0.0708
-0.0471 -0.0542 0.0708
-0.0457 -0.0548 0.0708
-0.0428 -0.0564 0.0708
-0.0419 -0.0572 0.0708
-0.0408 -0.0582 0.0708
-0.0399 -0.059 0.0708
-0.0374 -0.0622 0.0708
-0.0359 -0.0648 0.0708
-0.0349 -0.0663 0.0708
-0.0332 -0.0688 0.0708
-0.0317 -0.0714 0.0708
-0.0765 -0.0773 0.0709
-0.0763 -0.0833 0.0709
-0.0762 -0.0744 0.0709
-0.0762 -0.0668 0.0709
-0.0757 -0.0682 0.0709
-0.0754 -0.069 0.0709
-0.0754 -0.064 0.0709
-0.075 -0.0894 0.0709
-0.075 -0.0704 0.0709
-0.0744 -0.0628 0.0709
-0.0739 -0.091 0.0709
-0.0702 -0.0579 0.0709
-0.0668 -0.0554 0.0709
-0.0634 -0.0529 0.0709
-0.0582 -0.0516 0.0709
-0.0575 -0.0517 0.0709
-0.0541 -0.0523 0.0709
-0.053 -0.0525 0.0709
-0.0519 -0.0528 0.0709
-0.0443 -0.0554 0.0709
-0.043 -0.0562 0.0709
-0.0421 -0.057 0.0709
-0.041 -0.058 0.0709
-0.0401 -0.0588 0.0709
-0.0391 -0.0598 0.0709
-0.038 -0.0612 0.0709
-0.0364 -0.0637 0.0709
-0.0323 -0.0703 0.0709
-0.0307 -0.0729 0.0709
-0.0766 -0.0783 0.071
-0.0765 -0.0659 0.071
-0.0764 -0.0808 0.071
-0.0763 -0.0853 0.071
-0.0763 -0.0843 0.071
-0.0763 -0.0747 0.071
-0.0763 -0.0652 0.071
-0.0762 -0.0879 0.071
-0.076 -0.0673 0.071
-0.0755 -0.0888 0.071
-0.0753 -0.0711 0.071
-0.0753 -0.0696 0.071
-0.0751 -0.0708 0.071
-0.0744 -0.0904 0.071
-0.0738 -0.062 0.071
-0.0733 -0.092 0.071
-0.0729 -0.0608 0.071
-0.072 -0.0596 0.071
-0.0695 -0.0573 0.071
-0.0661 -0.0548 0.071
-0.0627 -0.0523 0.071
-0.062 -0.0518 0.071
-0.0595 -0.0513 0.071
-0.0588 -0.0514 0.071
-0.0573 -0.0517 0.071
-0.0562 -0.0519 0.071
-0.0551 -0.0521 0.071
-0.0512 -0.0528 0.071
-0.0501 -0.053 0.071
-0.0491 -0.0533 0.071
-0.0476 -0.0539 0.071
-0.0462 -0.0545 0.071
-0.0432 -0.056 0.071
-0.0412 -0.0578 0.071
-0.0402 -0.0585 0.071
-0.0392 -0.0595 0.071
-0.037 -0.0627 0.071
-0.0355 -0.0652 0.071
-0.0344 -0.0667 0.071
-0.0339 -0.0678 0.071
-0.0328 -0.0693 0.071
-0.0313 -0.0718 0.071
-0.0306 -0.0734 0.071
-0.0766 -0.0793 0.0711
-0.0766 -0.0754 0.0711
-0.0765 -0.0751 0.0711
-0.0764 -0.0818 0.0711
-0.0763 -0.0863 0.0711
-0.0763 -0.0665 0.0711
-0.076 -0.0883 0.0711
-0.0759 -0.0679 0.0711
-0.0757 -0.0644 0.0711
-0.0756 -0.0687 0.0711
-0.0754 -0.0715 0.0711
-0.0751 -0.0701 0.0711
-0.0749 -0.0899 0.0711
-0.0748 -0.0632 0.0711
-0.0738 -0.0915 0.0711
-0.0688 -0.0568 0.0711
-0.0681 -0.0562 0.0711
-0.0654 -0.0543 0.0711
-0.0647 -0.0538 0.0711
-0.0614 -0.0513 0.0711
-0.0611 -0.0513 0.0711
-0.0609 -0.0512 0.0711
-0.0606 -0.0512 0.0711
-0.0604 -0.0512 0.0711
-0.0601 -0.0512 0.0711
-0.0586 -0.0514 0.0711
-0.0579 -0.0516 0.0711
-0.0545 -0.0522 0.0711
-0.0534 -0.0524 0.0711
-0.0523 -0.0526 0.0711
-0.0448 -0.0551 0.0711
-0.0423 -0.0568 0.0711
-0.0413 -0.0575 0.0711
-0.0394 -0.0593 0.0711
-0.0386 -0.0602 0.0711
-0.0376 -0.0617 0.0711
-0.036 -0.0642 0.0711
-0.0319 -0.0708 0.0711
-0.0306 -0.0739 0.0711
-0.0768 -0.0758 0.0712
-0.0767 -0.0656 0.0712
-0.0765 -0.0828 0.0712
-0.0762 -0.067 0.0712
-0.0757 -0.0722 0.0712
-0.0757 -0.0684 0.0712
-0.0756 -0.0718 0.0712
-0.0754 -0.0893 0.0712
-0.0754 -0.0692 0.0712
-0.0743 -0.0909 0.0712
-0.0742 -0.0624 0.0712
-0.0733 -0.0612 0.0712
-0.0724 -0.06 0.0712
-0.0715 -0.0588 0.0712
-0.0708 -0.0583 0.0712
-0.0674 -0.0557 0.0712
-0.064 -0.0533 0.0712
-0.0599 -0.0512 0.0712
-0.0592 -0.0513 0.0712
-0.0566 -0.0517 0.0712
-0.0555 -0.052 0.0712
-0.0516 -0.0527 0.0712
-0.0505 -0.0529 0.0712
-0.0495 -0.0531 0.0712
-0.0481 -0.0536 0.0712
-0.0467 -0.0542 0.0712
-0.0434 -0.0558 0.0712
-0.0424 -0.0565 0.0712
-0.0404 -0.0583 0.0712
-0.0395 -0.0591 0.0712
-0.0366 -0.0631 0.0712
-0.0351 -0.0657 0.0712
-0.0334 -0.0682 0.0712
-0.0324 -0.0697 0.0712
-0.0309 -0.0723 0.0712
-0.0306 -0.0744 0.0712
-0.0767 -0.0768 0.0713
-0.0766 -0.0803 0.0713
-0.0765 -0.0838 0.0713
-0.0765 -0.0662 0.0713
-0.0764 -0.0873 0.0713
-0.0761 -0.0648 0.0713
-0.076 -0.0675 0.0713
-0.0759 -0.0888 0.0713
-0.0759 -0.0725 0.0713
-0.0753 -0.0697 0.0713
-0.0752 -0.0635 0.0713
-0.0748 -0.0904 0.0713
-0.0741 -0.0914 0.0713
-0.0737 -0.092 0.0713
-0.0736 -0.0615 0.0713
-0.0727 -0.0603 0.0713
-0.0718 -0.0592 0.0713
-0.0701 -0.0577 0.0713
-0.0667 -0.0552 0.0713
-0.0633 -0.0527 0.0713
-0.0583 -0.0514 0.0713
-0.0577 -0.0516 0.0713
-0.0538 -0.0522 0.0713
-0.0527 -0.0525 0.0713
-0.0453 -0.0549 0.0713
-0.0439 -0.0555 0.0713
-0.0426 -0.0563 0.0713
-0.0415 -0.0573 0.0713
-0.0406 -0.0581 0.0713
-0.0382 -0.0607 0.0713
-0.0372 -0.0621 0.0713
-0.0356 -0.0646 0.0713
-0.034 -0.0672 0.0713
-0.0315 -0.0712 0.0713
-0.0308 -0.0728 0.0713
-0.0768 -0.0778 0.0714
-0.0766 -0.0812 0.0714
-0.0765 -0.0848 0.0714
-0.0764 -0.0883 0.0714
-0.0763 -0.0667 0.0714
-0.076 -0.0729 0.0714
-0.0759 -0.068 0.0714
-0.0756 -0.0689 0.0714
-0.0755 -0.0639 0.0714
-0.0753 -0.0898 0.0714
-0.0745 -0.0627 0.0714
-0.0694 -0.0572 0.0714
-0.066 -0.0547 0.0714
-0.0653 -0.0541 0.0714
-0.0626 -0.0522 0.0714
-0.0619 -0.0517 0.0714
-0.0596 -0.0512 0.0714
-0.059 -0.0513 0.0714
-0.057 -0.0516 0.0714
-0.0559 -0.0518 0.0714
-0.0549 -0.0521 0.0714
-0.0509 -0.0527 0.0714
-0.0499 -0.053 0.0714
-0.0487 -0.0533 0.0714
-0.0472 -0.054 0.0714
-0.0458 -0.0546 0.0714
-0.0428 -0.0561 0.0714
-0.0417 -0.0571 0.0714
-0.0408 -0.0579 0.0714
-0.0397 -0.0589 0.0714
-0.0388 -0.0596 0.0714
-0.0346 -0.0661 0.0714
-0.033 -0.0687 0.0714
-0.032 -0.0702 0.0714
-0.0307 -0.0733 0.0714
-0.0768 -0.0788 0.0715
-0.0767 -0.0822 0.0715
-0.0766 -0.0658 0.0715
-0.0765 -0.0858 0.0715
-0.0764 -0.0651 0.0715
-0.0763 -0.0736 0.0715
-0.0762 -0.0732 0.0715
-0.0762 -0.0672 0.0715
-0.0758 -0.0893 0.0715
-0.0754 -0.0694 0.0715
-0.0751 -0.0903 0.0715
-0.0747 -0.0909 0.0715
-0.074 -0.0919 0.0715
-0.074 -0.0619 0.0715
-0.0731 -0.0607 0.0715
-0.0722 -0.0595 0.0715
-0.0714 -0.0587 0.0715
-0.0687 -0.0566 0.0715
-0.068 -0.0561 0.0715
-0.0646 -0.0536 0.0715
-0.0613 -0.0512 0.0715
-0.061 -0.0511 0.0715
-0.0608 -0.0511 0.0715
-0.0605 -0.0511 0.0715
-0.0603 -0.0511 0.0715
-0.0587 -0.0513 0.0715
-0.0581 -0.0514 0.0715
-0.0542 -0.0521 0.0715
-0.0531 -0.0523 0.0715
-0.052 -0.0526 0.0715
-0.0444 -0.0552 0.0715
-0.0419 -0.0569 0.0715
-0.0409 -0.0576 0.0715
-0.0398 -0.0586 0.0715
-0.039 -0.0594 0.0715
-0.0378 -0.0611 0.0715
-0.0368 -0.0626 0.0715
-0.0362 -0.0636 0.0715
-0.0352 -0.0651 0.0715
-0.0336 -0.0676 0.0715
-0.0307 -0.0738 0.0715
-0.077 -0.0762 0.0716
-0.0768 -0.0798 0.0716
-0.0767 -0.0832 0.0716
-0.0766 -0.0868 0.0716
-0.0765 -0.0739 0.0716
-0.0765 -0.0663 0.0716
-0.0762 -0.0888 0.0716
-0.076 -0.0677 0.0716
-0.0759 -0.0642 0.0716
-0.0757 -0.0686 0.0716
-0.0749 -0.0631 0.0716
-0.0745 -0.0914 0.0716
-0.0707 -0.0581 0.0716
-0.0673 -0.0556 0.0716
-0.0639 -0.0531 0.0716
-0.06 -0.0511 0.0716
-0.0594 -0.0512 0.0716
-0.0574 -0.0515 0.0716
-0.0563 -0.0517 0.0716
-0.0552 -0.0519 0.0716
-0.0513 -0.0526 0.0716
-0.0503 -0.0528 0.0716
-0.0492 -0.0531 0.0716
-0.0477 -0.0537 0.0716
-0.0463 -0.0543 0.0716
-0.043 -0.0559 0.0716
-0.042 -0.0566 0.0716
-0.04 -0.0584 0.0716
-0.0391 -0.0591 0.0716
-0.0384 -0.0601 0.0716
-0.0342 -0.0666 0.0716
-0.0326 -0.0691 0.0716
-0.0316 -0.0706 0.0716
-0.0311 -0.0717 0.0716
-0.077 -0.0772 0.0717
-0.0768 -0.0807 0.0717
-0.0768 -0.0655 0.0717
-0.0767 -0.0842 0.0717
-0.0766 -0.0878 0.0717
-0.0766 -0.0743 0.0717
-0.0763 -0.0669 0.0717
-0.0761 -0.0892 0.0717
-0.0757 -0.0898 0.0717
-0.0756 -0.0691 0.0717
-0.0754 -0.0703 0.0717
-0.0753 -0.07 0.0717
-0.075 -0.0908 0.0717
-0.0743 -0.0622 0.0717
-0.0734 -0.061 0.0717
-0.0725 -0.0599 0.0717
-0.07 -0.0576 0.0717
-0.0666 -0.0551 0.0717
-0.0632 -0.0526 0.0717
-0.0625 -0.052 0.0717
-0.0585 -0.0513 0.0717
-0.0546 -0.052 0.0717
-0.0535 -0.0522 0.0717
-0.0524 -0.0524 0.0717
-0.0449 -0.0549 0.0717
-0.0411 -0.0574 0.0717
-0.0402 -0.0582 0.0717
-0.0374 -0.0616 0.0717
-0.0358 -0.064 0.0717
-0.0348 -0.0655 0.0717
-0.0332 -0.0681 0.0717
-0.031 -0.0722 0.0717
-0.077 -0.0782 0.0718
-0.0769 -0.075 0.0718
-0.0768 -0.0746 0.0718
-0.0767 -0.0852 0.0718
-0.0766 -0.066 0.0718
-0.0762 -0.0674 0.0718
-0.0762 -0.0646 0.0718
-0.0759 -0.0683 0.0718
-0.0757 -0.071 0.0718
-0.0756 -0.0707 0.0718
-0.0755 -0.0903 0.0718
-0.0754 -0.0696 0.0718
-0.0753 -0.0634 0.0718
-0.0744 -0.0919 0.0718
-0.0693 -0.057 0.0718
-0.0686 -0.0565 0.0718
-0.0659 -0.0545 0.0718
-0.0652 -0.054 0.0718
-0.0618 -0.0515 0.0718
-0.0598 -0.0511 0.0718
-0.0591 -0.0512 0.0718
-0.0567 -0.0515 0.0718
-0.0556 -0.0518 0.0718
-0.0517 -0.0525 0.0718
-0.0507 -0.0527 0.0718
-0.0496 -0.0529 0.0718
-0.0483 -0.0534 0.0718
-0.0468 -0.054 0.0718
-0.0435 -0.0556 0.0718
-0.0422 -0.0564 0.0718
-0.0413 -0.0572 0.0718
-0.0393 -0.0589 0.0718
-0.0379 -0.0605 0.0718
-0.0364 -0.063 0.0718
-0.0338 -0.067 0.0718
-0.0322 -0.0696 0.0718
-0.0309 -0.0727 0.0718
-0.0771 -0.0753 0.0719
-0.077 -0.0792 0.0719
-0.0769 -0.0817 0.0719
-0.0768 -0.0862 0.0719
-0.0766 -0.0888 0.0719
-0.0765 -0.0666 0.0719
-0.076 -0.0897 0.0719
-0.076 -0.0717 0.0719
-0.076 -0.0679 0.0719
-0.0759 -0.0714 0.0719
-0.0757 -0.0688 0.0719
-0.0749 -0.0913 0.0719
-0.0747 -0.0626 0.0719
-0.0738 -0.0614 0.0719
-0.0729 -0.0602 0.0719
-0.072 -0.0591 0.0719
-0.0713 -0.0585 0.0719
-0.0679 -0.0559 0.0719
-0.0645 -0.0535 0.0719
-0.0612 -0.051 0.0719
-0.0609 -0.051 0.0719
-0.0607 -0.0509 0.0719
-0.0604 -0.0509 0.0719
-0.0589 -0.0512 0.0719
-0.0578 -0.0514 0.0719
-0.0539 -0.052 0.0719
-0.0528 -0.0523 0.0719
-0.0454 -0.0547 0.0719
-0.044 -0.0553 0.0719
-0.0424 -0.0562 0.0719
-0.0415 -0.057 0.0719
-0.0404 -0.058 0.0719
-0.0394 -0.0587 0.0719
-0.037 -0.062 0.0719
-0.0354 -0.0645 0.0719
-0.0344 -0.066 0.0719
-0.0328 -0.0685 0.0719
-0.0312 -0.0711 0.0719
-0.0309 -0.0732 0.0719
-0.0772 -0.0757 0.072
-0.077 -0.0802 0.072
-0.0769 -0.0827 0.072
-0.0768 -0.0872 0.072
-0.0768 -0.0657 0.072
-0.0766 -0.065 0.072
-0.0765 -0.0892 0.072
-0.0763 -0.0671 0.072
-0.0762 -0.0721 0.072
-0.0757 -0.0638 0.072
-0.0756 -0.0693 0.072
-0.0754 -0.0908 0.072
-0.0741 -0.0617 0.072
-0.0732 -0.0606 0.072
-0.0723 -0.0594 0.072
-0.0706 -0.058 0.072
-0.0672 -0.0554 0.072
-0.0638 -0.053 0.072
-0.0602 -0.0509 0.072
-0.0595 -0.0511 0.072
-0.0571 -0.0514 0.072
-0.056 -0.0516 0.072
-0.055 -0.0519 0.072
-0.0511 -0.0525 0.072
-0.05 -0.0528 0.072
-0.0488 -0.0531 0.072
-0.0473 -0.0538 0.072
-0.0426 -0.056 0.072
-0.0416 -0.0567 0.072
-0.0405 -0.0577 0.072
-0.0396 -0.0585 0.072
-0.0386 -0.0595 0.072
-0.0375 -0.061 0.072
-0.036 -0.0635 0.072
-0.0318 -0.07 0.072
-0.0312 -0.0716 0.072
-0.0309 -0.0738 0.072
-0.0772 -0.0777 0.0721
-0.0772 -0.0767 0.0721
-0.077 -0.0837 0.0721
-0.0766 -0.0662 0.0721
-0.0763 -0.0724 0.0721
-0.0762 -0.0676 0.0721
-0.076 -0.0641 0.0721
-0.0759 -0.0902 0.0721
-0.0759 -0.0684 0.0721
-0.075 -0.0629 0.0721
-0.0748 -0.0918 0.0721
-0.0699 -0.0574 0.0721
-0.0665 -0.0549 0.0721
-0.0658 -0.0544 0.0721
-0.0631 -0.0524 0.0721
-0.0624 -0.0519 0.0721
-0.0582 -0.0512 0.0721
-0.0543 -0.0519 0.0721
-0.0532 -0.0521 0.0721
-0.0521 -0.0524 0.0721
-0.0459 -0.0544 0.0721
-0.0445 -0.055 0.0721
-0.0407 -0.0575 0.0721
-0.0398 -0.0582 0.0721
-0.0387 -0.0592 0.0721
-0.0366 -0.0625 0.0721
-0.035 -0.0649 0.0721
-0.0339 -0.0664 0.0721
-0.0334 -0.0675 0.0721
-0.0324 -0.069 0.0721
-0.0311 -0.0721 0.0721
-0.0771 -0.0811 0.0722
-0.0769 -0.0847 0.0722
-0.0769 -0.0654 0.0722
-0.0768 -0.0882 0.0722
-0.0766 -0.0731 0.0722
-0.0765 -0.0728 0.0722
-0.0765 -0.0667 0.0722
-0.0764 -0.0897 0.0722
-0.0757 -0.069 0.0722
-0.0753 -0.0913 0.0722
-0.0745 -0.0621 0.0722
-0.0736 -0.0609 0.0722
-0.0727 -0.0598 0.0722
-0.0719 -0.0589 0.0722
-0.0692 -0.0569 0.0722
-0.0685 -0.0563 0.0722
-0.0651 -0.0538 0.0722
-0.0617 -0.0514 0.0722
-0.0599 -0.0509 0.0722
-0.0593 -0.0511 0.0722
-0.0575 -0.0513 0.0722
-0.0564 -0.0515 0.0722
-0.0553 -0.0517 0.0722
-0.0515 -0.0524 0.0722
-0.0504 -0.0526 0.0722
-0.0493 -0.0529 0.0722
-0.0479 -0.0535 0.0722
-0.0431 -0.0557 0.0722
-0.0418 -0.0565 0.0722
-0.0409 -0.0573 0.0722
-0.0389 -0.059 0.0722
-0.0381 -0.0599 0.0722
-0.0371 -0.0614 0.0722
-0.0356 -0.0639 0.0722
-0.0314 -0.0705 0.0722
-0.031 -0.0726 0.0722
-0.0772 -0.0787 0.0723
-0.0771 -0.0821 0.0723
-0.077 -0.0857 0.0723
-0.0768 -0.0892 0.0723
-0.0768 -0.0735 0.0723
-0.0768 -0.0659 0.0723
-0.0764 -0.0645 0.0723
-0.0763 -0.0673 0.0723
-0.076 -0.0681 0.0723
-0.0757 -0.0907 0.0723
-0.0754 -0.0633 0.0723
-0.0712 -0.0584 0.0723
-0.0678 -0.0558 0.0723
-0.0644 -0.0533 0.0723
-0.0611 -0.0509 0.0723
-0.0608 -0.0508 0.0723
-0.0606 -0.0508 0.0723
-0.0586 -0.0511 0.0723
-0.0547 -0.0518 0.0723
-0.0536 -0.052 0.0723
-0.0525 -0.0522 0.0723
-0.0464 -0.0541 0.0723
-0.045 -0.0548 0.0723
-0.042 -0.0563 0.0723
-0.04 -0.058 0.0723
-0.039 -0.0588 0.0723
-0.0362 -0.0629 0.0723
-0.0346 -0.0654 0.0723
-0.033 -0.0679 0.0723
-0.032 -0.0694 0.0723
-0.0313 -0.071 0.0723
-0.031 -0.0732 0.0723
-0.0774 -0.0762 0.0724
-0.0772 -0.0831 0.0724
-0.0772 -0.0797 0.0724
-0.077 -0.0867 0.0724
-0.0769 -0.0738 0.0724
-0.0766 -0.0664 0.0724
-0.0762 -0.0902 0.0724
-0.0759 -0.0687 0.0724
-0.0757 -0.0699 0.0724
-0.0756 -0.0912 0.0724
-0.0755 -0.0695 0.0724
-0.0752 -0.0918 0.0724
-0.0748 -0.0624 0.0724
-0.0739 -0.0613 0.0724
-0.073 -0.0601 0.0724
-0.0705 -0.0578 0.0724
-0.0671 -0.0553 0.0724
-0.0637 -0.0528 0.0724
-0.063 -0.0523 0.0724
-0.0603 -0.0508 0.0724
-0.0597 -0.0509 0.0724
-0.0568 -0.0513 0.0724
-0.0557 -0.0516 0.0724
-0.0519 -0.0523 0.0724
-0.0508 -0.0525 0.0724
-0.0497 -0.0527 0.0724
-0.0484 -0.0532 0.0724
-0.0436 -0.0554 0.0724
-0.0422 -0.0561 0.0724
-0.0411 -0.0571 0.0724
-0.0401 -0.0578 0.0724
-0.0377 -0.0604 0.0724
-0.0367 -0.0619 0.0724
-0.0351 -0.0644 0.0724
-0.0335 -0.0669 0.0724
-0.0774 -0.0771 0.0725
-0.0773 -0.0806 0.0725
-0.0772 -0.0841 0.0725
-0.0772 -0.0745 0.0725
-0.0771 -0.0742 0.0725
-0.077 -0.0877 0.0725
-0.0769 -0.0656 0.0725
-0.0767 -0.0897 0.0725
-0.0767 -0.0649 0.0725
-0.0765 -0.067 0.0725
-0.0762 -0.0678 0.0725
-0.076 -0.0706 0.0725
-0.0758 -0.0702 0.0725
-0.0758 -0.0636 0.0725
-0.0757 -0.0692 0.0725
-0.0698 -0.0573 0.0725
-0.0691 -0.0567 0.0725
-0.0664 -0.0548 0.0725
-0.0657 -0.0542 0.0725
-0.0623 -0.0517 0.0725
-0.059 -0.051 0.0725
-0.0579 -0.0512 0.0725
-0.054 -0.0518 0.0725
-0.0529 -0.0521 0.0725
-0.0469 -0.0538 0.0725
-0.0455 -0.0545 0.0725
-0.0441 -0.0551 0.0725
-0.0412 -0.0568 0.0725
-0.0403 -0.0576 0.0725
-0.0392 -0.0586 0.0725
-0.0383 -0.0593 0.0725
-0.0341 -0.0658 0.0725
-0.0326 -0.0684 0.0725
-0.0316 -0.0699 0.0725
-0.0313 -0.0715 0.0725
-0.0774 -0.0781 0.0726
-0.0774 -0.0749 0.0726
-0.0773 -0.0816 0.0726
-0.0772 -0.0851 0.0726
-0.077 -0.0887 0.0726
-0.0768 -0.0661 0.0726
-0.0766 -0.0901 0.0726
-0.0763 -0.0713 0.0726
-0.0763 -0.0675 0.0726
-0.0761 -0.0907 0.0726
-0.0761 -0.0709 0.0726
-0.076 -0.0683 0.0726
-0.0755 -0.0917 0.0726
-0.0752 -0.0628 0.0726
-0.0743 -0.0616 0.0726
-0.0734 -0.0605 0.0726
-0.0724 -0.0593 0.0726
-0.0718 -0.0588 0.0726
-0.0684 -0.0562 0.0726
-0.065 -0.0537 0.0726
-0.0616 -0.0512 0.0726
-0.0601 -0.0508 0.0726
-0.0572 -0.0512 0.0726
-0.0561 -0.0514 0.0726
-0.0551 -0.0517 0.0726
-0.0512 -0.0523 0.0726
-0.0501 -0.0526 0.0726
-0.0489 -0.0529 0.0726
-0.0427 -0.0558 0.0726
-0.0414 -0.0566 0.0726
-0.0404 -0.0573 0.0726
-0.0394 -0.0583 0.0726
-0.0385 -0.0591 0.0726
-0.0373 -0.0608 0.0726
-0.0363 -0.0623 0.0726
-0.0358 -0.0634 0.0726
-0.0347 -0.0648 0.0726
-0.0331 -0.0673 0.0726
-0.0315 -0.0704 0.0726
-0.0312 -0.072 0.0726
-0.0775 -0.0753 0.0727
-0.0774 -0.0791 0.0727
-0.0772 -0.0861 0.0727
-0.0771 -0.0653 0.0727
-0.0766 -0.0666 0.0727
-0.0764 -0.0716 0.0727
-0.0762 -0.064 0.0727
-0.076 -0.0912 0.0727
-0.0758 -0.0688 0.0727
-0.0746 -0.062 0.0727
-0.0737 -0.0608 0.0727
-0.0728 -0.0596 0.0727
-0.0711 -0.0582 0.0727
-0.0677 -0.0556 0.0727
-0.0643 -0.0532 0.0727
-0.061 -0.0507 0.0727
-0.0607 -0.0507 0.0727
-0.0583 -0.051 0.0727
-0.0544 -0.0517 0.0727
-0.0533 -0.0519 0.0727
-0.0523 -0.0522 0.0727
-0.0475 -0.0536 0.0727
-0.046 -0.0542 0.0727
-0.0446 -0.0549 0.0727
-0.0416 -0.0564 0.0727
-0.0396 -0.0581 0.0727
-0.0386 -0.0588 0.0727
-0.0379 -0.0598 0.0727
-0.0337 -0.0663 0.0727
-0.0322 -0.0688 0.0727
-0.0312 -0.0726 0.0727
-0.0777 -0.0757 0.0728
-0.0776 -0.0766 0.0728
-0.0775 -0.0801 0.0728
-0.0774 -0.0826 0.0728
-0.0772 -0.0871 0.0728
-0.0771 -0.0897 0.0728
-0.0769 -0.0658 0.0728
-0.0766 -0.072 0.0728
-0.0765 -0.0671 0.0728
-0.0765 -0.0644 0.0728
-0.0764 -0.0906 0.0728
-0.0762 -0.068 0.0728
-0.0755 -0.0631 0.0728
-0.0704 -0.0577 0.0728
-0.067 -0.0551 0.0728
-0.0663 -0.0546 0.0728
-0.0636 -0.0527 0.0728
-0.0629 -0.0521 0.0728
-0.0605 -0.0507 0.0728
-0.0594 -0.0509 0.0728
-0.0576 -0.0511 0.0728
-0.0565 -0.0513 0.0728
-0.0554 -0.0515 0.0728
-0.0516 -0.0522 0.0728
-0.0505 -0.0524 0.0728
-0.0494 -0.0527 0.0728
-0.048 -0.0533 0.0728
-0.0432 -0.0555 0.0728
-0.0406 -0.0571 0.0728
-0.0397 -0.0579 0.0728
-0.0369 -0.0613 0.0728
-0.0353 -0.0638 0.0728
-0.0343 -0.0653 0.0728
-0.0327 -0.0678 0.0728
-0.0314 -0.0709 0.0728
-0.0311 -0.0731 0.0728
-0.0777 -0.0776 0.0729
-0.0775 -0.081 0.0729
-0.0774 -0.0836 0.0729
-0.0772 -0.0881 0.0729
-0.0769 -0.0901 0.0729
-0.0769 -0.0727 0.0729
-0.0768 -0.0663 0.0729
-0.0767 -0.0723 0.0729
-0.076 -0.0685 0.0729
-0.0759 -0.0917 0.0729
-0.075 -0.0623 0.0729
-0.0741 -0.0612 0.0729
-0.0731 -0.06 0.0729
-0.0723 -0.0591 0.0729
-0.0697 -0.0571 0.0729
-0.069 -0.0566 0.0729
